ply
format ascii 1.0
comment PCL generated
element vertex 1528
property float x
property float y
property float z
element face 0
element camera 0
property float view_px
property float view_py
property float view_pz
property float x_axisx
property float x_axisy
property float x_axisz
property float y_axisx
property float y_axisy
property float y_axisz
property float z_axisx
property float z_axisy
property float z_axisz
property float focal
property float scalex
property float scaley
property float centerx
property float centery
property int viewportx
property int viewporty
property float k1
property float k2
end_header
1003.7178 68.699173 -171.78116
1003.7373 68.617859 -171.61604
1003.7679 68.497375 -171.36554
1003.7992 68.377518 -171.11302
1003.8193 68.296875 -170.94641
1003.6579 67.97525 -171.17035
1003.6782 67.896011 -171.00507
1003.7075 67.77626 -170.75984
1003.7371 67.65657 -170.51405
1003.7681 67.538033 -170.26398
1003.6053 67.210655 -170.48639
1003.801 67.420349 -170.0081
1003.648 67.050232 -170.14542
1003.6804 66.930824 -169.88972
1003.5278 66.561432 -170.02634
1003.7234 66.772301 -169.54984
1003.5702 66.400307 -169.68552
1003.6051 66.281937 -169.42169
1003.6298 66.204086 -169.24168
1003.4633 65.862549 -169.46155
1003.5002 65.745743 -169.19179
1003.5341 65.626221 -168.93036
1003.369 65.289764 -169.15076
1003.3907 65.210281 -168.9794
1003.4235 65.090958 -168.72212
1003.4578 64.972847 -168.46085
1003.2914 64.631332 -168.68034
1003.3259 64.513054 -168.41782
1003.3591 64.393936 -168.1593
1003.3807 64.314163 -167.98804
1003.2148 63.972588 -168.20596
1003.2495 63.854008 -167.94246
1003.2853 63.736065 -167.67575
1003.1171 63.386784 -167.89281
1003.1418 63.30946 -167.7131
1003.1775 63.191822 -167.44725
1003.0204 62.80246 -167.57733
1003.0445 62.724247 -167.39932
1003.081 62.606873 -167.13058
1002.9228 62.208031 -167.2541
1002.9526 62.133743 -167.05923
1002.9819 62.059593 -166.86646
1002.8183 61.694866 -167.04915
1002.8337 61.660324 -166.95293
1002.8474 61.623734 -166.86081
1002.6785 61.252731 -167.05531
1002.883 61.505653 -166.59433
1002.7162 61.145264 -166.79349
1002.7511 61.028702 -166.53162
1002.5964 60.641384 -166.65576
1002.794 60.869781 -166.19179
1002.6266 60.519577 -166.40483
1002.6573 60.398315 -166.15288
1002.6901 60.278782 -165.89531
1002.5317 59.933182 -166.08051
1002.7198 60.157887 -165.64734
1002.562 59.811546 -165.82985
1002.7463 60.038418 -165.41302
1002.5894 59.696743 -165.59755
1002.7723 59.922874 -165.18503
1002.6149 59.586658 -165.37749
1002.8001 59.809631 -164.95291
1002.6368 59.466972 -165.15967
1002.8309 59.694839 -164.7084
1002.673 59.302433 -164.8381
1002.6942 59.222809 -164.66888
1002.7259 59.103531 -164.41547
1002.5677 58.708321 -164.54312
1002.7686 58.945148 -164.07692
1002.6108 58.548386 -164.20114
1002.6456 58.43034 -163.93793
1002.4857 58.023941 -164.0592
1002.6951 58.275421 -163.57851
1002.5352 57.868603 -163.69908
1002.5701 57.75042 -163.4352
1002.5919 57.670113 -163.26303
1002.4216 57.306858 -163.47174
1002.4552 57.188957 -163.21332
1002.4882 57.070324 -162.95593
1002.3291 56.667156 -163.07788
1002.5331 56.913799 -162.61148
1002.3728 56.50708 -162.73349
1002.4081 56.389469 -162.46906
1002.4323 56.311371 -162.29071
1002.2591 55.93639 -162.49666
1002.2966 55.821026 -162.22632
1002.3326 55.703678 -161.95966
1002.16 55.330479 -162.16568
1002.1833 55.251999 -161.98981
1002.2175 55.133747 -161.72841
1002.2531 55.01701 -161.46391
1002.0789 54.638733 -161.6698
1002.1035 54.560932 -161.4902
1002.1395 54.443882 -161.22371
1001.9786 54.031185 -161.34094
1002.1831 54.284321 -160.88034
1002.0118 53.913654 -161.08441
1002.0429 53.7939 -160.83258
1002.0757 53.675652 -160.57652
1001.9128 53.255062 -160.69241
1002.1251 53.523018 -160.21973
1001.9619 53.098267 -160.33231
1001.9995 52.982445 -160.06107
1002.0239 52.904327 -159.88199
1001.8604 52.480091 -159.996
1001.8954 52.362701 -159.73232
1001.7319 51.939064 -159.84708
1001.9424 52.206909 -159.38084
1001.7788 51.781506 -159.49387
1001.8151 51.664852 -159.22659
1001.6511 51.237057 -159.33826
1001.675 51.159595 -159.16156
1001.7091 51.042122 -158.90161
1001.7419 50.923599 -158.64519
1001.5782 50.49934 -158.75995
1001.7856 50.765556 -158.3035
1001.6223 50.342045 -158.41725
1001.6545 50.223679 -158.16301
1001.6864 50.105194 -157.9101
1001.5225 49.67963 -158.02411
1001.7303 49.948818 -157.56917
1001.555 49.559242 -157.76651
1001.59 49.441456 -157.50276
1001.627 49.325512 -157.23392
1001.4484 48.924408 -157.42979
1001.4745 48.848534 -157.2467
1001.5132 48.733971 -156.97318
1001.5388 48.657555 -156.79169
1001.36 48.255081 -156.98636
1001.3974 48.139004 -156.71613
1001.2296 47.692009 -156.81943
1001.4538 47.994297 -156.3429
1001.2873 47.54253 -156.43607
1001.3223 47.476372 -156.23186
1000.1055 45.105152 -157.981
1001.1761 46.98827 -156.20879
1002.1765 48.823002 -154.63849
1001.0379 46.505524 -156.16238
1000.86 46.075737 -156.32291
1000.9262 46.051586 -156.052
1000.7617 45.636116 -156.17957
1000.6009 45.222416 -156.29587
1000.4451 44.813705 -156.39934
1000.2947 44.411209 -156.48965
987.65741 20.414665 -175.38223
999.89526 43.569107 -156.99115
987.96527 20.913284 -174.82355
999.46118 42.712967 -157.60352
984.86462 14.961769 -179.38556
987.43481 19.850174 -175.55252
988.28503 21.439751 -174.25273
998.9104 41.600143 -158.34995
999.5307 42.769173 -157.41245
984.60181 14.391068 -179.6964
987.49371 19.880348 -175.37064
988.3454 21.480309 -174.07773
998.9696 41.647224 -158.18658
999.57959 42.789444 -157.25627
984.36292 13.874756 -179.98172
986.94183 18.778694 -176.13419
987.87683 20.518463 -174.69547
998.65143 40.975975 -158.5853
999.20673 42.029999 -157.7547
984.14801 13.40696 -180.23444
987.04437 18.881844 -175.87582
998.85925 41.308662 -158.20352
999.42981 42.382225 -157.3392
986.47375 17.746826 -176.66971
998.87982 41.28524 -158.10098
999.44238 42.343811 -157.24905
986.60004 17.884842 -176.36426
999.63098 42.637108 -156.89255
985.70575 16.098 -177.59935
985.81885 16.123543 -177.21332
985.54218 15.481743 -177.49329
985.60193 15.426186 -177.20993
985.3175 14.783165 -177.51706
985.05725 14.10099 -177.69066
985.11993 14.048767 -177.40025
985.19287 14.013428 -177.09186
984.58575 12.71022 -177.82693
984.6701 12.692711 -177.49692
984.74707 12.662224 -177.17931
984.13245 11.343277 -177.92386
984.21381 11.319862 -177.59796
983.92535 10.646797 -177.88548
984.01611 10.638161 -177.54214
983.39313 9.287117 -178.28073
983.48669 9.28228 -177.9313
983.19489 8.5975113 -178.21785
982.94647 7.9034424 -178.33412
983.03998 7.8987427 -177.98511
982.74677 7.2073288 -178.26915
982.84637 7.213295 -177.90982
982.54871 6.5115128 -178.19846
982.24982 5.8080139 -178.48914
981.94934 5.1066055 -178.78828
982.0191 5.0635605 -178.48248
982.0824 5.0101471 -178.18878
981.8114 4.2813568 -178.34814
981.50928 3.571373 -178.64322
981.59192 3.5478668 -178.31282
980.93988 2.1136551 -179.06265
981.03662 2.1148376 -178.70866
980.6936 1.3988571 -179.14725
968.1413 -23.349144 -196.8654
969.33337 -21.042915 -195.1322
970.52417 -18.66893 -193.48146
980.74664 1.4086227 -178.96368
967.78967 -24.10952 -197.28473
968.93091 -21.91143 -195.61423
970.88354 -18.021339 -192.90422
978.80194 -2.47332 -181.65384
979.73456 -0.62812042 -180.34492
980.7854 1.3961029 -178.80708
967.83264 -24.103203 -197.13405
968.94061 -21.974754 -195.50604
971.21033 -17.441605 -192.36893
978.87524 -2.4113388 -181.45564
979.82501 -0.54266357 -180.11055
980.80688 1.3575211 -178.68362
982.78625 5.2464523 -175.87408
967.89752 -24.049858 -196.957
968.96259 -22.007301 -195.388
971.23615 -17.47921 -192.23099
972.2439 -15.489174 -190.81207
979.88477 -0.51247406 -179.92572
980.81799 1.3045731 -178.58228
981.66632 2.9546585 -177.35893
982.54376 4.7043076 -176.1431
967.62006 -24.6661 -197.26939
968.66913 -22.626671 -195.75534
970.64886 -18.793335 -192.88055
971.60712 -16.83503 -191.60727
972.65247 -14.779236 -190.12576
979.92358 -0.51963043 -179.77496
980.82648 1.2498856 -178.48825
981.69586 2.9602509 -177.25676
966.82214 -26.335655 -198.28491
969.41455 -21.276787 -194.56573
971.70496 -16.743202 -191.35321
972.72656 -14.72509 -189.91573
979.94983 -0.5487442 -179.6451
980.83612 1.1981277 -178.39348
981.7207 2.9480667 -177.15147
969.17157 -21.769279 -194.89334
971.54059 -17.197571 -191.43565
972.49927 -15.268524 -190.12701
980.55518 0.56912994 -178.70366
981.44067 2.3260498 -177.46655
972.35748 -15.658211 -190.20087
973.23419 -13.901222 -188.99606
973.33466 -13.788895 -188.75589
973.435 -13.674049 -188.51886
969.93964 -20.67791 -193.32381
970.36707 -19.999809 -192.53165
969.97839 -20.862022 -192.97021
972.84851 -15.378922 -188.71744
969.61841 -21.890038 -193.11328
969.71912 -21.902367 -192.7291
969.83228 -21.891884 -192.32536
968.97156 -23.767586 -193.33534
969.0824 -23.760612 -192.93617
969.18231 -23.773277 -192.55453
968.30475 -25.677147 -193.59412
968.4118 -25.678276 -193.19939
968.52502 -25.668129 -192.79517
967.63586 -27.603874 -193.8407
967.7334 -27.620476 -193.46342
967.82526 -27.646187 -193.09634
967.44641 -28.63784 -193.35037
967.54181 -28.657127 -192.97772
966.63568 -30.631447 -194.04137
967.21777 -29.65107 -193.02765
966.30304 -31.651985 -194.09235
966.41382 -31.647636 -193.69034
966.52124 -31.649086 -193.2941
966.13574 -32.66906 -193.53987
965.69611 -33.687859 -193.9863
965.30078 -34.717995 -194.25668
965.37775 -34.769951 -193.91435
964.96558 -35.834526 -194.20709
965.06335 -35.854301 -193.82506
965.17596 -35.847435 -193.41925
964.22418 -37.948418 -194.50545
964.81586 -36.932274 -193.49747
964.38855 -38.0205 -193.81868
963.96576 -39.10247 -194.13052
964.05029 -39.147148 -193.76865
964.16864 -39.131493 -193.35184
963.21124 -41.277428 -194.4068
962.76642 -42.35096 -194.80945
962.35425 -43.369316 -195.15515
963.06641 -42.105385 -193.98914
962.04517 -44.300209 -195.22235
962.14667 -44.317986 -194.82932
961.68378 -45.390678 -195.29898
961.74036 -45.475731 -194.99365
961.82825 -45.597038 -194.53151
961.89594 -45.661644 -194.20863
961.4165 -46.770576 -194.69754
961.55035 -46.82119 -194.1478
961.07397 -47.949883 -194.60298
961.14496 -47.921684 -194.37453
960.68298 -49.038322 -194.79048
960.2182 -50.165962 -195.20416
959.74426 -51.311211 -195.63123
959.90857 -51.211082 -195.14262
959.41864 -52.381065 -195.59988
958.97986 -53.544395 -195.87711
959.06915 -53.575096 -195.51395
959.18854 -53.652412 -194.98669
958.68665 -54.836357 -195.47202
958.24652 -56.030083 -195.71933
957.758 -57.217979 -196.15109
957.9389 -57.091606 -195.63135
954.10455 -65.270378 -200.3334
956.94171 -59.505974 -196.52472
957.07397 -59.468117 -196.08217
956.55005 -60.715294 -196.57608
956.65735 -60.718712 -196.17773
956.13055 -61.972252 -196.67497
956.22949 -61.98864 -196.29251
955.74011 -63.265434 -196.6254
955.83069 -63.301308 -196.25156
955.34161 -64.579613 -196.58159
956.01685 -63.360741 -195.49963
955.52673 -64.650017 -195.82089
954.98413 -65.9356 -196.33913
955.13782 -65.962151 -195.7442
954.60175 -67.247643 -196.23846
954.73267 -67.215385 -195.79443
953.57648 -69.871574 -196.99432
953.76544 -69.732643 -196.45978
953.24365 -71.023186 -196.89581
952.73578 -72.295143 -197.30208
952.24213 -73.545036 -197.68164
951.74292 -74.807106 -198.06764
951.85938 -74.691643 -197.77213
951.20502 -76.138908 -198.5155
946.5564 -86.182594 -204.06934
951.27625 -76.101738 -198.29643
946.69287 -86.000206 -203.77711
948.21814 -82.717033 -201.94083
946.80957 -85.861778 -203.50734
948.35724 -82.531822 -201.64233
951.93408 -74.946312 -197.2056
947.96838 -83.486687 -201.97527
951.35205 -76.21244 -197.89105
948.03271 -83.457893 -201.77191
951.96558 -75.030174 -196.99374
948.55634 -82.427238 -201.03091
952.53131 -73.946541 -196.15872
949.07587 -81.393272 -200.30884
953.06909 -72.915749 -195.36566
952.04626 -75.118034 -196.59634
953.59631 -71.898109 -194.59644
952.62915 -73.994423 -195.74411
954.12781 -70.861168 -193.83377
952.65167 -74.043205 -195.60565
954.19098 -70.806877 -193.66388
952.10712 -75.298149 -196.16615
953.73621 -71.853676 -194.13351
910.78143 -165.20688 -244.82568
910.92078 -165.33286 -244.16937
911.10956 -165.3725 -243.43024
911.35675 -165.16855 -242.75644
909.12598 -170.27396 -245.09358
909.43048 -169.96765 -244.32634
908.3385 -172.54562 -245.3801
907.35834 -175.03986 -246.11911
907.54736 -174.96201 -245.51407
906.56036 -177.46356 -246.26978
907.87878 -174.88757 -244.38199
906.83539 -177.49783 -245.22018
907.03943 -177.5242 -244.4404
905.92822 -180.12503 -245.53848
906.07227 -180.12607 -245.00815
906.25977 -180.17786 -244.25978
906.42548 -180.26917 -243.54645
905.32538 -182.84 -244.63797
905.4436 -182.89664 -244.13895
905.73956 -182.75076 -243.21895
904.6181 -185.44107 -244.25226
904.95959 -185.06104 -243.43373
1008.66 88.502365 -171.21887
1008.6851 88.391891 -171.00014
1008.7096 88.322227 -170.83005
1008.5903 88.0271 -170.92992
1008.6254 87.963837 -170.72833
1008.3405 87.460709 -171.19771
1008.3767 87.39566 -170.98997
1008.4171 87.33625 -170.77332
1008.1295 86.823425 -171.24167
1007.4254 85.688904 -172.52635
1008.1907 86.732651 -170.91269
1008.0753 86.428085 -170.98709
1007.9396 86.154198 -171.17126
1007.9769 86.090195 -170.961
1007.8601 85.784302 -171.03897
1007.7237 85.50827 -171.22331
1007.7614 85.444519 -171.01173
1007.642 85.134781 -171.09512
1007.5036 84.856331 -171.28395
1007.5411 84.792458 -171.07275
1007.423 84.481514 -171.15007
1007.2845 84.199493 -171.33519
1007.325 84.138214 -171.11629
1007.207 83.824867 -171.18994
1007.0679 83.53978 -171.37399
1007.1104 83.480614 -171.15002
1006.8101 82.938164 -171.63074
1006.8491 82.874733 -171.41469
1006.89 82.81485 -171.19579
1006.5859 82.264648 -171.68158
1006.6276 82.203766 -171.45857
1006.4855 81.912537 -171.64668
1006.3621 81.590286 -171.73022
1006.3984 81.524246 -171.52081
1006.4357 81.460007 -171.31033
1006.3114 81.135376 -171.39456
1006.1675 80.838989 -171.58325
1006.2129 80.782379 -171.35135
1005.9022 80.212624 -171.83902
1005.9476 80.155457 -171.60652
1005.8022 79.854729 -171.7959
1005.6756 79.523247 -171.88042
1005.7131 79.458084 -171.66814
1005.7502 79.392693 -171.45656
1005.4327 78.816704 -171.96201
1005.4752 78.755684 -171.7359
1005.5215 78.699409 -171.50111
1005.202 78.111786 -172.00085
1005.2433 78.050606 -171.77914
1005.092 77.741325 -171.97984
1005.1312 77.67749 -171.76257
1004.9805 77.366211 -171.95897
1005.0261 77.30864 -171.72571
1004.7023 76.704727 -172.22205
1004.7562 76.656731 -171.96906
1004.6064 76.340065 -172.15622
1004.4776 75.995438 -172.23386
1004.5184 75.932976 -172.01247
1004.3633 75.615593 -172.21823
1004.2253 75.263702 -172.32115
1004.2612 75.196259 -172.11191
1004.1195 74.844498 -172.22902
1004.3121 75.041855 -171.74792
1004.1578 74.737465 -171.96539
1004.1875 74.622406 -171.72435
1004.2156 74.504288 -171.48566
1004.2434 74.387184 -171.24893
1004.0959 74.095261 -171.45599
1004.2716 74.272728 -171.0141
1004.1214 73.975723 -171.22522
1004.1385 73.896057 -171.07095
1004.1666 73.777542 -170.83194
1004.1964 73.660316 -170.5878
1004.2171 73.583237 -170.42342
1004.064 73.279396 -170.63733
1004.0836 73.199615 -170.47356
1004.1156 73.082123 -170.22107
1003.9711 72.73317 -170.35164
1003.9936 72.654968 -170.17941
1004.0275 72.538162 -169.92102
1003.8821 72.186218 -170.0509
1004.0721 72.381668 -169.57745
1003.9277 72.031097 -169.70561
1003.9608 71.913818 -169.44972
1003.9821 71.835014 -169.28076
1003.8372 71.484924 -169.41144
1003.8682 71.367157 -169.16264
1003.8989 71.249405 -168.91452
1003.7435 70.938171 -169.12839
1003.7643 70.859283 -168.96146
1003.7963 70.741638 -168.70885
1003.6494 70.384285 -168.8385
1003.8397 70.584564 -168.36954
1003.6943 70.230232 -168.49695
1003.7251 70.112671 -168.24878
1003.7548 69.994682 -168.00429
1003.5994 69.681915 -168.21632
1003.6194 69.602127 -168.05148
1003.6515 69.484207 -167.79825
1003.6853 69.367645 -167.54028
1003.5272 69.045624 -167.75151
1003.5494 68.968445 -167.58124
1003.5803 68.851204 -167.3333
1003.61 68.733253 -167.08887
1003.631 68.656204 -166.92345
1003.4739 68.336273 -167.13333
1003.5069 68.218521 -166.87738
1003.3586 67.848236 -166.99704
1003.5579 68.067047 -166.51627
1003.4089 67.696404 -166.63834
1003.4412 67.578506 -166.38438
1003.2832 67.255013 -166.59354
1003.3041 67.176514 -166.42688
1003.3358 67.058578 -166.17523
1003.3689 66.941658 -165.91911
1003.209 66.610664 -166.12694
1003.2321 66.533752 -165.9537
1003.2664 66.41761 -165.69437
1003.1177 66.046883 -165.81537
1003.311 66.261108 -165.35115
1003.1617 65.892227 -165.47614
1003.192 65.774529 -165.22992
1003.2227 65.657715 -164.98332
1003.064 65.329285 -165.18933
1003.0845 65.250038 -165.0229
1003.1164 65.132484 -164.77115
1003.1485 65.015396 -164.51878
1002.9881 64.681282 -164.72475
1003.01 64.603035 -164.55455
1003.0436 64.486397 -164.29739
1002.8926 64.107262 -164.41679
1003.0903 64.332596 -163.94923
1002.9405 63.952839 -164.06392
1002.9778 63.838593 -163.79559
1002.8143 63.492176 -163.99886
1002.8525 63.378525 -163.72813
1002.7012 62.992302 -163.84099
1002.7267 62.916893 -163.66068
1002.7615 62.80143 -163.4003
1002.7921 62.682766 -163.15196
1002.6316 62.346306 -163.35535
1002.8223 62.564938 -162.90588
1002.6722 62.188194 -163.0249
1002.7042 62.070881 -162.77278
1002.5516 61.686813 -162.89249
1002.7456 61.913086 -162.43953
1002.5846 61.572018 -162.63966
1002.6166 61.454308 -162.38734
1002.6515 61.342354 -162.13049
1002.4876 60.984177 -162.32159
1002.5139 60.908524 -162.13834
1002.3647 60.514217 -162.23383
1002.3782 60.476978 -162.14142
1001.589 59.027977 -163.37833
1002.4147 60.363335 -161.87723
1002.4437 60.245422 -161.63518
1002.4709 60.127457 -161.40015
1002.3207 59.750458 -161.51927
1002.5088 59.971649 -161.08205
1002.3493 59.632824 -161.27925
1002.3782 59.514122 -161.0367
1002.4091 59.39632 -160.78822
1002.4418 59.279541 -160.53386
1002.2772 58.924522 -160.73117
1002.3 58.848007 -160.55963
1002.3331 58.731697 -160.30466
1002.3661 58.615505 -160.05035
1002.2015 58.259834 -160.24707
1002.2233 58.181435 -160.07678
1002.2569 58.065025 -159.8199
1002.291 57.949203 -159.5618
1002.1249 57.588158 -159.75772
1002.1482 57.510963 -159.58348
1002.1836 57.395771 -159.32135
1002.0285 56.993786 -159.42992
1002.0516 56.91753 -159.25728
1002.0845 56.801514 -159.00375
1002.116 56.684544 -158.75359
1001.9617 56.28643 -158.86383
1002.1601 56.531761 -158.41634
1002.0046 56.128933 -158.52531
1002.0389 56.013397 -158.26669
1002.0624 55.937057 -158.09305
1001.8947 55.568447 -158.2859
1001.9297 55.452663 -158.0247
1001.9652 55.337681 -157.76221
1001.7971 54.966862 -157.95457
1001.8204 54.890659 -157.78125
1001.8537 54.774628 -157.52588
1001.8869 54.658817 -157.27101
1001.719 54.288219 -157.46263
1001.7416 54.210308 -157.29004
1001.7765 54.094902 -157.02974
1001.8104 53.978596 -156.77167
1001.6422 53.605873 -156.96216
1001.6647 53.528805 -156.79074
1001.6985 53.412865 -156.53368
1001.5402 52.995472 -156.63652
1001.7487 53.265072 -156.17992
1001.5904 52.842152 -156.27596
1001.4323 52.415543 -156.36719
1001.6501 52.701939 -155.89578
1001.4917 52.272118 -155.98453
1001.5239 52.204334 -155.78851
1001.366 51.772041 -155.87253
1001.4004 51.706379 -155.67099
1001.2437 51.272125 -155.74821
1001.2837 51.213501 -155.53423
1001.1328 50.781281 -155.59259
1000.9589 50.369942 -155.75926
1001.0111 50.327026 -155.51845
1000.6364 49.517117 -155.96591
1000.6904 49.476433 -155.72083
1000.5148 49.057995 -155.8857
1000.3636 48.614971 -155.93298
1000.4154 48.571018 -155.69199
1000.2385 48.147957 -155.85655
1000.2952 48.111099 -155.60582
999.91309 47.275177 -156.05048
999.98047 47.253605 -155.77831
999.81158 46.833065 -155.91614
999.64606 46.414284 -156.04396
999.48242 45.996529 -156.16573
999.31866 45.577557 -156.28665
999.15332 45.155605 -156.40991
999.24152 45.166538 -156.09846
999.07153 44.736809 -156.22989
998.89935 44.303505 -156.36526
997.30322 41.195656 -158.66292
984.02881 15.967834 -178.48329
984.80054 17.437279 -177.33438
997.34601 41.217499 -158.53101
997.86389 42.219734 -157.77832
998.52936 43.454048 -156.74976
983.77869 15.420975 -178.77481
984.55469 16.905609 -177.62744
985.3302 18.36441 -176.45232
997.3847 41.230576 -158.4037
997.92346 42.264954 -157.6114
998.55554 43.435654 -156.63258
983.80249 15.404327 -178.66829
984.56128 16.852783 -177.54268
985.35077 18.32988 -176.33704
986.14807 19.834503 -175.13448
997.77643 41.918983 -157.75459
998.37048 43.03521 -156.85294
983.26135 14.290352 -179.37808
984.56519 16.794556 -177.46143
985.3819 18.31266 -176.20306
986.18823 19.83744 -174.9903
997.99884 42.277397 -157.3488
998.57886 43.357285 -156.45691
982.65839 13.056961 -180.17813
984.56873 16.73291 -177.37775
985.42963 18.323891 -176.04053
986.23962 19.861633 -174.8293
998.02081 42.256653 -157.24416
998.58441 43.311241 -156.38374
982.69177 13.054695 -180.05283
984.57837 16.677429 -177.27864
985.49976 18.374344 -175.84073
986.30231 19.908134 -174.65227
998.22345 42.578255 -156.86874
998.76642 43.597733 -156.0439
999.28076 44.57515 -155.27586
984.60321 16.643616 -177.14865
985.59735 18.473442 -175.59598
998.59595 43.223145 -156.24014
982.74365 13.016724 -179.81857
982.67181 12.798531 -179.83217
984.38928 16.020248 -177.2193
984.49396 16.035187 -176.85193
986.06421 18.997849 -174.48254
983.91248 14.76432 -177.53004
984.03558 14.809204 -177.12914
983.77814 14.184166 -177.35785
983.50842 13.538551 -177.608
982.8963 12.219345 -178.34297
983.29431 12.830994 -177.58253
983.02716 12.130081 -177.75999
982.73499 11.469299 -178.07507
982.81439 11.371628 -177.67139
982.52417 10.709709 -177.97797
982.57544 10.641891 -177.71187
982.63196 10.584099 -177.43787
982.33551 9.9071808 -177.75041
982.40503 9.8661346 -177.44794
984.1593 13.217896 -174.84903
981.77777 8.5031967 -178.1884
981.88501 8.5213165 -177.81531
981.59955 7.8402405 -178.08247
981.70483 7.854599 -177.71222
981.06714 6.4639359 -178.45935
981.15991 6.4576187 -178.11145
980.86346 5.7567139 -178.39624
980.97461 5.7817841 -178.01654
980.68091 5.0798569 -178.29016
980.02893 3.6511002 -179.04599
980.11511 3.6354675 -178.71159
980.17871 3.5818024 -178.41641
979.8949 2.8319397 -178.59848
979.59143 2.1156769 -178.89172
979.62579 2.0950165 -178.74167
977.91895 -1.2949753 -181.12245
978.95056 0.72788239 -179.65381
979.96667 2.6493607 -178.12546
978.0202 -1.1851273 -180.87672
979.0144 0.76068115 -179.45674
979.97357 2.592865 -178.03535
978.09808 -1.1191635 -180.66635
979.06085 0.76454163 -179.29056
979.98145 2.5412674 -177.94717
980.80353 4.1479034 -176.77046
968.01605 -20.973373 -194.92432
969.13037 -18.79361 -193.33167
978.15741 -1.0877838 -180.48418
979.0932 0.74516296 -179.14951
979.99176 2.4952393 -177.85648
980.84497 4.1730194 -176.64708
967.67523 -21.713287 -195.32739
968.771 -19.572815 -193.75781
969.85919 -17.4375 -192.21002
978.51068 -0.47822571 -179.88594
979.41547 1.29776 -178.59966
980.29431 3.0230103 -177.35057
968.7774 -19.633514 -193.6647
969.86243 -17.511528 -192.11322
970.86755 -15.525772 -190.69919
979.72375 1.8310547 -178.07895
969.13953 -19.004463 -193.05606
970.21973 -16.892166 -191.51144
971.21692 -14.925079 -190.10498
969.88354 -17.639282 -191.88913
970.93585 -15.571114 -190.39635
966.3269 -24.703445 -196.85005
969.92072 -17.65757 -191.73163
971.00146 -15.534027 -190.19781
965.91193 -25.62326 -197.31918
969.99426 -17.609436 -191.51663
971.09058 -15.450531 -189.96637
972.09656 -13.464485 -188.54945
969.22418 -19.197227 -192.52411
970.50391 -16.705353 -190.68182
971.53326 -14.665024 -189.24115
965.43201 -26.763489 -197.77383
969.34735 -19.066849 -192.22107
971.32458 -15.166298 -189.43265
972.28552 -13.262138 -188.08722
966.24139 -25.255814 -196.53038
971.74603 -14.411446 -188.75049
968.53699 -20.805481 -193.20325
968.09259 -21.731155 -193.77368
968.18005 -21.670181 -193.52246
971.32239 -15.55938 -188.98978
968.29724 -21.652069 -193.11276
967.88342 -22.594528 -193.55145
967.98297 -22.691025 -193.07513
967.57776 -23.603119 -193.51727
967.63007 -23.688019 -193.22766
967.23474 -24.687347 -193.53333
967.78955 -23.768188 -192.54987
970.11371 -19.25853 -189.18567
967.45703 -24.675659 -192.73019
966.58716 -26.593903 -193.72491
966.18079 -27.550507 -194.12029
966.30774 -27.515961 -193.69333
966.41278 -27.520874 -193.30193
966.03241 -28.517883 -193.55531
965.60437 -29.505157 -193.99512
965.22333 -30.505875 -194.24667
965.31268 -30.536163 -193.88379
964.92059 -31.536179 -194.17688
965.42023 -30.711716 -193.28738
965.02783 -31.704071 -193.59021
964.62769 -32.744095 -193.86707
964.73212 -32.751801 -193.47449
964.297 -33.769958 -193.90485
963.92334 -34.777527 -194.12146
964.02759 -34.785278 -193.72957
964.1167 -34.819305 -193.36307
963.70563 -35.880844 -193.65533
963.77942 -35.937592 -193.31934
963.3761 -36.985703 -193.5983
962.92328 -38.042191 -194.04956
963.05566 -38.002136 -193.60916
962.63245 -39.024567 -193.99103
962.21069 -40.051117 -194.36249
961.78625 -41.084991 -194.73547
961.97406 -40.944153 -194.20718
961.53021 -42.01442 -194.60971
960.54382 -44.228104 -195.69354
960.6825 -44.176941 -195.24277
960.2085 -45.292419 -195.70432
959.78448 -46.412994 -195.97636
959.88751 -46.424561 -195.58456
959.45166 -47.567093 -195.8748
959.54913 -47.588638 -195.49199
959.63873 -47.624573 -195.12161
959.19305 -48.781708 -195.43115
959.27124 -48.835602 -195.08209
958.78271 -49.972198 -195.57288
958.90143 -50.050079 -195.04727
958.40833 -51.195343 -195.54483
958.48175 -51.254608 -195.20706
958.58447 -51.356964 -194.71234
958.08978 -52.506561 -195.21082
958.16901 -52.561066 -194.85721
958.27515 -52.565674 -194.46182
957.20972 -54.973694 -195.61304
957.39093 -54.846344 -195.09338
956.90881 -56.020813 -195.51709
957.08563 -55.901154 -195.00467
956.00305 -58.363312 -196.15677
956.14343 -58.311859 -195.70038
955.62579 -59.54422 -196.18785
955.16309 -60.770981 -196.48019
955.25537 -60.805038 -196.10199
954.76459 -62.085144 -196.43643
954.87329 -62.094101 -196.02679
955.03625 -62.000122 -195.53592
954.45013 -63.281036 -196.21936
953.96667 -64.485733 -196.61325
953.46368 -65.726822 -197.03705
952.91956 -67.035782 -197.53409
953.64282 -65.695618 -196.41489
953.08008 -67.019821 -196.9628
953.18994 -67.108643 -196.4574
952.68176 -68.427429 -196.81097
952.77209 -68.470703 -196.4296
952.89575 -68.447693 -196.00171
951.71191 -71.167725 -197.22998
951.94653 -70.939453 -196.62996
951.4436 -72.202209 -197.02864
951.56299 -72.084396 -196.72537
951.01349 -73.435852 -197.1933
950.44641 -74.812897 -197.69659
950.52203 -74.778107 -197.45877
949.88977 -76.175629 -198.17799
945.87439 -84.869446 -202.95444
949.27136 -77.572235 -198.84741
946.03491 -84.639832 -202.62817
947.52332 -81.42569 -200.84808
949.40369 -77.427582 -198.5275
946.1817 -84.441864 -202.31604
947.73236 -81.10733 -200.44519
949.50928 -77.331802 -198.24927
945.76953 -85.442444 -202.68207
947.35144 -82.049774 -200.76318
949.00525 -78.516327 -198.74203
953.07062 -69.852081 -193.74808
946.92407 -83.08493 -201.14545
948.52594 -79.655273 -199.19592
950.14343 -76.218369 -197.1972
953.1958 -69.65831 -193.51065
947.51508 -81.933594 -200.29553
949.10608 -78.5289 -198.35698
950.65723 -75.212585 -196.46359
952.2099 -71.865448 -194.59985
947.54749 -81.975372 -200.12839
949.12146 -78.600189 -198.21869
950.6745 -75.261719 -196.34406
952.27484 -71.806244 -194.42944
948.60986 -79.800873 -198.72049
950.17004 -76.440399 -196.84464
951.77655 -72.967346 -194.92789
910.32727 -162.94547 -243.9617
909.3457 -165.30649 -244.85864
909.69232 -164.92154 -244.02707
907.43341 -170.07291 -246.41501
907.71753 -169.81137 -245.67117
906.10162 -174.70792 -245.98962
904.99341 -177.29022 -247.09811
905.13159 -177.30008 -246.57898
905.30225 -177.37692 -245.86398
901.58398 -190.53903 -244.42229
900.44104 -193.23117 -245.53235
900.55499 -193.28757 -245.04883
900.73004 -193.36862 -244.31277
896.93115 -204.0098 -246.05939
895.69983 -206.98526 -247.16907
894.55933 -209.93002 -247.98007
894.80591 -209.74582 -247.28568
893.62988 -212.75345 -248.15518
895.14868 -209.67923 -246.10263
1007.3173 88.511963 -171.23676
1007.33 88.43396 -171.10069
1007.3603 88.321243 -170.85982
1007.2255 88.059769 -171.05508
1007.2574 87.991249 -170.85936
1007.1235 87.724541 -171.04532
1007.0071 87.424332 -171.12817
1007.043 87.359459 -170.92197
1007.0794 87.295792 -170.71524
1006.7915 86.786842 -171.18896
1006.8293 86.723053 -170.97675
1006.8699 86.662811 -170.75858
1006.5799 86.145638 -171.23058
1006.6199 86.084251 -171.01309
1006.5045 85.778214 -171.08586
1006.5461 85.718765 -170.86487
1006.2532 85.19342 -171.33812
1006.2942 85.132622 -171.11807
1006.1573 84.853279 -171.30019
1006.0402 84.542015 -171.37366
1006.0815 84.481644 -171.1525
1005.9433 84.199188 -171.33595
1005.9846 84.138786 -171.11478
1005.8654 83.823944 -171.19177
1005.7252 83.539215 -171.38004
1005.7634 83.475616 -171.16681
1005.6405 83.157593 -171.25317
1005.4987 82.870834 -171.44533
1005.5366 82.807053 -171.23279
1005.3952 82.518227 -171.42097
1005.2533 82.225296 -171.60614
1005.3 82.170372 -171.37137
1005.1603 81.878258 -171.54956
1005.2047 81.82058 -171.32018
1004.8973 81.26152 -171.80801
1004.9383 81.200958 -171.58798
1004.9757 81.13591 -171.37598
1004.8477 80.807785 -171.46986
1004.7017 80.511665 -171.66658
1004.5734 80.180534 -171.75781
1004.6125 80.11689 -171.54124
1004.4665 79.815399 -171.7316
1004.5125 79.75885 -171.49777
1004.3902 79.427475 -171.56686
1004.243 79.123085 -171.75816
1004.2828 79.059639 -171.53941
1004.1509 78.721619 -171.6358
1004.0008 78.416809 -171.83775
1003.8678 78.07486 -171.9339
1003.9094 78.013077 -171.71014
1003.76 77.702507 -171.90289
1003.8019 77.641586 -171.67889
1003.6481 77.331955 -171.88857
1003.6805 77.226669 -171.64894
1003.7056 77.122002 -171.4364
1003.7303 77.016441 -171.22459
1003.8879 77.163704 -170.81479
1003.7538 76.907677 -171.01376
1003.9126 77.059395 -170.60445
1003.7754 76.794914 -170.80495
1003.9372 76.949387 -170.38765
1003.7965 76.677971 -170.59328
1003.9625 76.835999 -170.16476
1003.8191 76.559349 -170.37411
1003.8354 76.480286 -170.22357
1003.8617 76.362442 -169.99173
1003.8895 76.245461 -169.75534
1003.9177 76.128784 -169.51775
1003.9369 76.05143 -169.35873
1003.7896 75.762512 -169.5683
1003.8183 75.644783 -169.32771
1003.8494 75.528625 -169.0802
1003.8707 75.45121 -168.91281
1003.7211 75.153175 -169.12088
1003.7538 75.037613 -168.86804
1003.6136 74.697479 -168.99255
1003.7992 74.884979 -168.52602
1003.6597 74.543503 -168.64676
1003.52 74.20076 -168.7666
1003.5317 74.162476 -168.67963
1003.5547 74.086014 -168.50764
1003.5875 73.970352 -168.25464
1003.4464 73.62722 -168.3793
1003.4687 73.550507 -168.20935
1003.502 73.435089 -167.95468
1003.3609 73.091072 -168.07816
1003.5441 73.278893 -167.62042
1003.4035 72.937813 -167.74561
1003.4335 72.821167 -167.50177
1003.2938 72.481834 -167.62573
1003.4735 72.666229 -167.17693
1003.3229 72.364204 -167.38358
1003.3521 72.247314 -167.14247
1003.3813 72.1306 -166.90103
1003.2399 71.786446 -167.02597
1003.4221 71.975845 -166.57379
1003.2814 71.630989 -166.69501
1003.3124 71.514633 -166.44739
1003.1707 71.168312 -166.57074
1003.3521 71.358009 -166.12216
1003.2112 71.01358 -166.24429
1003.2415 70.89711 -165.99962
1003.0989 70.547272 -166.12195
1003.2838 70.743301 -165.66751
1003.1419 70.391953 -165.7858
1003.1754 70.276772 -165.53058
1003.1974 70.199455 -165.36104
1003.0546 69.845444 -165.47951
1003.0868 69.729706 -165.22842
1002.9435 69.374275 -165.34714
1002.9655 69.296829 -165.17754
1002.999 69.181534 -164.92212
1002.8556 68.824524 -165.03915
1003.0422 69.026787 -164.58551
1002.8987 68.670135 -164.70383
1002.931 68.554443 -164.45221
1002.953 68.47757 -164.28336
1002.798 68.156197 -164.48425
1002.831 68.040855 -164.23048
1002.8633 67.924805 -163.97888
1002.7081 67.603287 -164.17975
1002.7295 67.526764 -164.01343
1002.7604 67.410843 -163.76715
1002.791 67.294487 -163.52107
1002.8116 67.216995 -163.35622
1002.6572 66.895676 -163.5551
1002.6883 66.779541 -163.30766
1002.7198 66.664215 -163.05965
1002.7421 66.589211 -162.89151
1002.5856 66.260284 -163.08923
1001.7512 64.679848 -164.34119
1002.6425 66.06839 -162.65991
1002.4849 65.736496 -162.85806
1002.5078 65.661232 -162.68768
1002.54 65.546028 -162.43689
1002.5724 65.431061 -162.18622
1002.416 65.101105 -162.38237
1002.4373 65.023209 -162.21463
1001.5399 63.325031 -163.56279
1002.3122 64.573067 -162.15756
1002.5038 64.792358 -161.70514
1002.3578 64.420143 -161.81436
1002.3925 64.305679 -161.55614
1002.4153 64.22905 -161.38409
1002.2682 63.85429 -161.49466
1002.3004 63.738663 -161.24374
1002.1544 63.367828 -161.35452
1002.3427 63.58498 -160.91223
1002.1954 63.212097 -161.02524
1002.2256 63.095718 -160.78088
1002.2554 62.979397 -160.53793
1002.2754 62.901859 -160.37552
1002.1183 62.567627 -160.56892
1002.1499 62.451397 -160.31961
1002.1826 62.335911 -160.06691
1002.0226 61.990055 -160.25778
1002.214 62.217888 -159.81621
1002.0687 61.841019 -159.91774
1002.0983 61.725025 -159.67569
1002.126 61.608139 -159.44008
1001.973 61.280365 -159.62582
1002.1545 61.497711 -159.20857
1001.9978 61.159359 -159.39595
1002.186 61.394917 -158.97467
1002.0236 61.038979 -159.16283
1002.0489 60.966557 -158.98714
1002.0854 60.907043 -158.78447
1001.9233 60.538372 -158.9574
1001.9423 60.507507 -158.85217
1001.7789 60.142239 -159.03313
1001.8182 60.034206 -158.76482
1001.8448 59.916595 -158.53227
1001.8708 59.80027 -158.30292
1001.89 59.723694 -158.1449
1001.7338 59.384995 -158.33025
1001.7537 59.306328 -158.16669
1001.7862 59.190689 -157.91469
1001.8196 59.075905 -157.66034
1001.6586 58.724541 -157.84875
1001.6907 58.609585 -157.5986
1001.7216 58.493752 -157.35225
1001.7522 58.378147 -157.10718
1001.5929 58.03054 -157.29349
1001.6129 57.952637 -157.13071
1001.6431 57.836292 -156.88652
1001.6736 57.720512 -156.64127
1001.5229 57.328812 -156.74582
1001.7156 57.566833 -156.31071
1001.5656 57.174591 -156.41177
1001.5991 57.060314 -156.15779
1001.4473 56.65934 -156.25513
1001.4714 56.583008 -156.07928
1001.5107 56.473106 -155.80861
1001.5382 56.401569 -155.62558
1001.3859 55.992306 -155.7157
1001.2327 55.578426 -155.80353
1001.2635 55.50885 -155.6105
1001.1121 55.090054 -155.68626
1001.1497 55.02858 -155.47754
1001.1899 54.971031 -155.26366
1001.0442 54.554684 -155.32156
1000.8766 54.161835 -155.48642
1000.9252 54.115112 -155.25406
1000.5653 53.34407 -155.69174
1000.6175 53.301567 -155.45135
1000.6698 53.259579 -155.21089
1000.3067 52.478977 -155.64911
1000.361 52.439362 -155.40446
1000.1926 52.036175 -155.56039
1000.2491 51.999844 -155.31114
999.8822 51.205009 -155.74698
999.94049 51.171051 -155.49376
999.77106 50.762226 -155.64728
999.8313 50.731106 -155.3902
999.66174 50.320805 -155.54234
999.28918 49.507603 -155.97803
999.35144 49.478985 -155.71643
999.17889 49.061745 -155.87141
999.23755 49.027657 -155.61694
998.85773 48.201881 -156.06482
998.91541 48.166111 -155.81204
998.73914 47.741329 -155.97217
998.79944 47.709507 -155.7142
998.41687 46.869122 -156.15527
998.24133 46.437363 -156.30487
998.31787 46.42981 -156.01491
998.14838 46.005356 -156.15063
997.97791 45.578407 -156.28703
998.05804 45.576538 -155.99057
997.88617 45.146751 -156.12863
997.71472 44.716488 -156.26492
997.54651 44.289413 -156.39294
995.94885 41.1707 -158.68381
997.38562 43.870667 -156.50359
996.34601 41.87458 -158.0325
996.97174 43.055809 -157.08893
982.16022 14.897522 -179.19398
982.9519 16.393356 -178.00197
996.03943 41.222664 -158.41087
996.60223 42.295837 -157.57457
997.22906 43.456268 -156.60316
982.17743 14.862648 -179.09079
982.96674 16.348999 -177.89648
983.76202 17.853577 -176.70113
996.26105 41.583282 -158.01031
996.84918 42.692108 -157.12202
998.41071 45.638374 -154.76584
981.94019 14.348755 -179.37263
982.71448 15.805008 -178.19897
983.52454 17.327003 -176.96936
984.30511 18.812943 -175.80672
996.68054 42.312149 -157.30545
997.25366 43.376762 -156.42151
981.14307 12.753036 -180.47009
981.97418 14.354233 -179.25415
982.72754 15.760773 -178.10028
983.55591 17.308502 -176.83307
984.34576 18.81485 -175.65945
996.51038 41.929161 -157.4913
997.07806 42.992119 -156.62535
998.10364 44.945267 -155.09885
982.74011 15.716507 -178.0032
983.59619 17.304054 -176.67998
984.39972 18.840523 -175.49075
996.9032 42.605438 -156.82416
997.43121 43.599731 -156.0253
997.94482 44.588932 -155.2733
983.33777 16.738106 -176.97995
984.21558 18.404228 -175.6667
997.26459 43.229164 -156.21217
985.01678 19.876144 -174.41217
982.78748 15.530045 -177.61533
982.81903 15.440331 -177.39645
982.55219 14.755318 -177.59091
982.61249 14.698166 -177.30368
982.6933 14.67482 -176.98004
982.09943 13.385681 -177.68277
981.82324 12.730667 -177.94586
981.93158 12.752182 -177.57251
981.65399 12.095352 -177.83858
981.74811 12.09198 -177.48885
981.13184 10.766495 -178.23213
981.20111 10.724182 -177.92924
981.26318 10.671265 -177.64056
980.99878 9.9700928 -177.80728
981.06372 9.920578 -177.51181
980.43738 8.5758209 -178.26991
980.83704 9.1963654 -177.51367
980.57574 8.4931641 -177.66675
980.2771 7.8042297 -177.97348
980.35327 7.772728 -177.65753
980.10199 7.0755157 -177.78061
979.80634 6.3781815 -178.06665
979.55933 5.6788177 -178.17166
979.26141 4.9733429 -178.45683
979.36206 4.9799957 -178.09462
978.71167 3.555069 -178.84911
978.75928 3.5529327 -178.67184
978.85382 3.5487976 -178.31953
980.16547 5.9789429 -176.28923
976.52777 -1.1845856 -181.43393
980.55853 6.6892853 -175.66031
976.914 -0.50076294 -180.79958
977.89563 1.4309235 -179.40979
980.17493 5.8400726 -176.09521
976.67596 -1.0512619 -181.04251
977.6239 0.81317139 -179.69933
978.59607 2.692215 -178.28372
980.23224 5.8855591 -175.9369
976.73187 -1.0216751 -180.871
977.67169 0.82406616 -179.53613
978.60571 2.6436844 -178.19275
979.44458 4.2653122 -176.97153
980.2854 5.924263 -175.78618
977.39728 0.20477295 -179.83389
978.31384 2.0055542 -178.53278
979.20392 3.739769 -177.25275
980.04358 5.3813095 -176.05156
967.40527 -19.512466 -193.91818
977.12109 -0.41729736 -180.13464
978.02588 1.3654709 -178.85609
978.93176 3.1456604 -177.57066
979.80017 4.8406372 -176.32536
966.164 -22.058929 -195.5567
967.41907 -19.573669 -193.79745
968.5343 -17.332527 -192.27182
977.44666 0.14570618 -179.58453
978.34186 1.9159393 -178.32689
979.2467 3.6944427 -177.04338
965.34583 -23.742828 -196.63022
966.58948 -21.304718 -194.8588
967.83289 -18.83036 -193.13007
968.88287 -16.719925 -191.69415
969.8999 -14.715698 -190.25768
978.96252 3.0683975 -177.36902
965.37744 -23.757385 -196.49742
966.60681 -21.348083 -194.74533
967.85083 -18.87886 -193.00851
968.89807 -16.775299 -191.57475
969.92938 -14.746506 -190.11386
965.01904 -24.535904 -196.92093
966.24652 -22.124268 -195.17853
967.46722 -19.723038 -193.44913
968.58856 -17.479973 -191.90341
969.62244 -15.439453 -190.44641
970.67749 -13.367645 -188.94751
965.5174 -23.627258 -196.13254
966.7337 -21.227264 -194.41782
967.88599 -18.963478 -192.78207
968.98425 -16.790871 -191.24026
970.0498 -14.69249 -189.7334
964.70209 -25.318619 -197.18726
966.07184 -22.595825 -195.27916
967.20691 -20.338699 -193.69897
968.29486 -18.246674 -192.10254
969.45306 -15.967262 -190.46303
970.49365 -13.908676 -189.0022
965.2381 -24.336548 -196.34488
968.33752 -18.260323 -191.93008
969.62378 -15.736977 -190.10011
970.60602 -13.775101 -188.74257
965.22101 -24.459167 -196.26704
970.73285 -13.60984 -188.46628
967.95166 -19.155823 -192.32031
967.58466 -20.097656 -192.5878
970.14417 -15.167465 -188.84167
967.26263 -21.062042 -192.66452
967.35699 -21.081543 -192.29533
967.46167 -21.084915 -191.90701
967.09003 -21.967834 -192.25925
966.25519 -23.82225 -193.19843
965.86737 -24.744751 -193.56479
966.0105 -24.68045 -193.11276
965.60175 -25.632462 -193.52213
965.24146 -26.59024 -193.74667
965.33728 -26.610016 -193.37204
965.44104 -26.61322 -192.98729
964.54816 -28.561981 -194.03146
964.65204 -28.568878 -193.64191
964.74573 -28.593231 -193.26987
964.36011 -29.597443 -193.53442
964.44385 -29.636566 -193.18176
964.05627 -30.64444 -193.44916
963.62164 -31.647766 -193.89465
963.23553 -32.670151 -194.13995
963.35309 -32.65509 -193.72554
962.92175 -33.669159 -194.14667
962.54413 -34.683441 -194.37006
962.65228 -34.683319 -193.97295
962.20667 -35.720642 -194.41974
961.80774 -36.771942 -194.67905
961.91028 -36.78125 -194.29175
962.00415 -36.806732 -193.91766
961.59943 -37.867401 -194.18765
961.71118 -37.858429 -193.78741
960.74658 -39.99884 -194.875
960.8808 -39.955154 -194.43216
960.43402 -41.019684 -194.85211
960.56482 -40.982742 -194.41402
960.1488 -42.085693 -194.67682
959.67743 -43.18219 -195.15039
959.80817 -43.237839 -194.60632
959.33698 -44.335907 -195.07744
958.90924 -45.46669 -195.35132
959.03625 -45.437958 -194.9176
958.56696 -46.555634 -195.35934
958.72021 -46.47876 -194.88461
957.70349 -48.770538 -195.9903
957.85333 -48.69928 -195.52151
957.36139 -49.858124 -195.99925
957.49908 -49.902161 -195.4427
957.00415 -51.055695 -195.93744
957.13782 -51.110062 -195.384
956.63928 -52.277832 -195.87567
956.19147 -53.457672 -196.16721
956.841 -52.309509 -195.09827
956.38623 -53.505554 -195.3967
955.87976 -54.698013 -195.88922
955.42102 -55.913086 -196.18039
955.53827 -55.900681 -195.76379
955.64569 -55.90744 -195.36157
955.18738 -57.12149 -195.6521
955.28564 -57.144257 -195.26508
954.81488 -58.378494 -195.57837
954.28998 -59.61795 -196.08469
953.83032 -60.864044 -196.34352
953.32385 -62.104553 -196.78073
954.09363 -60.690521 -195.57544
953.58472 -61.927429 -196.02562
953.04584 -63.212708 -196.53055
952.54919 -64.50351 -196.87408
953.21033 -63.31189 -195.81265
952.73065 -64.574646 -196.12592
952.20026 -65.847992 -196.61353
951.73297 -67.121216 -196.86945
951.87592 -67.064697 -196.40897
951.33167 -68.374664 -196.90552
950.85565 -69.665817 -197.17267
950.9953 -69.618011 -196.71461
950.44281 -70.948318 -197.21796
949.94568 -72.277542 -197.51923
950.06018 -72.275513 -197.1008
950.172 -72.277802 -196.68741
949.60364 -73.635529 -197.21759
949.0896 -74.994995 -197.5463
949.18549 -75.026184 -197.15811
952.53326 -67.975311 -192.94937
952.36774 -68.4487 -193.0144
948.66052 -76.418152 -197.48953
953.12402 -66.900146 -192.01286
948.71515 -76.421112 -197.28558
953.09766 -67.058014 -191.92859
948.11829 -77.776535 -197.9231
951.79236 -70.014343 -193.33182
946.36444 -81.644791 -199.9278
948.18927 -77.74527 -197.69827
951.88611 -69.896606 -193.12244
947.63513 -79.033417 -198.25616
949.39893 -75.319061 -196.03802
951.9635 -69.815948 -192.93059
947.70258 -79.004364 -198.04153
949.42004 -75.371826 -195.89993
950.93738 -72.137512 -194.03659
947.75787 -78.99855 -197.84518
949.44214 -75.42247 -195.76074
948.37177 -77.7995 -196.96564
907.9967 -165.17847 -245.03528
909.18835 -162.83606 -243.34509
908.14294 -165.29453 -244.36497
907.15088 -167.78357 -245.15381
907.34528 -167.69443 -244.54184
906.36157 -170.1727 -245.31201
906.52692 -170.13107 -244.75238
906.72083 -170.17099 -243.99449
905.70612 -172.69302 -244.8284
905.84863 -172.7048 -244.29147
904.81946 -175.29999 -245.09451
905.03345 -175.17426 -244.45264
904.0271 -177.7438 -245.20151
904.27814 -177.54605 -244.50623
903.16003 -180.20728 -245.56036
902.18115 -182.75079 -246.23822
902.45282 -182.50986 -245.51657
902.66522 -182.39087 -244.87285
901.60022 -185.08893 -245.68973
900.03046 -190.51965 -245.22556
900.22961 -190.55789 -244.44998
899.06592 -193.29965 -245.57932
899.46179 -193.25247 -244.17902
898.37244 -196.03976 -244.98302
898.63281 -195.81998 -244.27875
897.43073 -198.71359 -245.37494
897.70825 -198.46487 -244.64053
896.55212 -201.40976 -245.50912
895.3891 -204.34329 -246.4158
894.17017 -209.16458 -245.3623
1006.0237 88.488693 -171.19344
1006.0421 88.420555 -171.04782
1005.9107 88.176804 -171.25064
1005.9296 88.098976 -171.09181
1005.8069 87.79985 -171.19952
1005.8364 87.728973 -171.00998
1005.8682 87.661377 -170.81557
1005.7334 87.394508 -171.00461
1005.7659 87.328529 -170.80927
1005.6317 87.059036 -170.99347
1005.6666 86.996033 -170.79286
1005.533 86.723785 -170.9715
1005.5726 86.663963 -170.75696
1005.2818 86.14592 -171.23093
1005.3212 86.083946 -171.01503
1005.3409 86.053009 -170.90707
1005.2067 85.778229 -171.08527
1005.2485 85.718422 -170.86288
1004.9568 85.192993 -171.3315
1004.9998 85.134552 -171.1066
1004.863 84.854889 -171.28835
1004.9038 84.794113 -171.06871
1004.7849 84.481667 -171.14706
1004.6458 84.199898 -171.33498
1004.6834 84.135986 -171.1232
1004.5628 83.821602 -171.20554
1004.4227 83.536987 -171.3938
1004.4633 83.475784 -171.17442
1004.3447 83.15976 -171.24748
1004.2043 82.871918 -171.43285
1004.2445 82.810165 -171.21442
1004.1196 82.48761 -171.30298
1003.9762 82.198997 -171.49896
1003.8492 81.875229 -171.59367
1003.8851 81.808777 -171.38574
1003.9233 81.745758 -171.17311
1003.6149 81.188507 -171.66696
1003.6566 81.127136 -171.44345
1003.7032 81.072052 -171.20891
1003.3943 80.503906 -171.69144
1003.4423 80.449661 -171.45302
1002.5048 78.953827 -173.181
1003.1534 79.849655 -171.82593
1003.1949 79.788483 -171.6033
1003.0475 79.48613 -171.79799
1002.9198 79.150986 -171.88254
1002.9614 79.090126 -171.65979
1002.8132 78.78643 -171.85574
1002.6861 78.454613 -171.9422
1002.7178 78.383179 -171.74376
1002.5845 78.048622 -171.84969
1002.7751 78.239243 -171.36792
1002.6237 77.935822 -171.57619
1001.9611 76.828484 -172.73965
1002.4878 77.598869 -171.68869
1003.6365 79.345444 -169.47292
1002.5223 77.490608 -171.43777
1002.6714 77.633774 -171.05444
1002.679 77.609131 -170.99841
1002.7125 77.595016 -170.85907
1002.8838 77.765343 -170.42511
1003.0527 77.932198 -169.99609
1003.2135 78.08342 -169.57886
1003.3646 78.215782 -169.1756
1003.5077 78.330887 -168.78197
1003.6503 78.434052 -168.3766
1004.4688 79.61512 -166.72455
1003.6821 78.302872 -168.10904
1003.7047 78.18985 -167.89668
1003.7279 78.077255 -167.6819
1003.7515 77.964325 -167.46591
1003.7759 77.850899 -167.24583
1003.8024 77.737411 -167.01819
1003.8212 77.66188 -166.86259
1003.6795 77.381744 -167.06186
1003.7076 77.265968 -166.82568
1003.7365 77.150993 -166.58775
1003.6028 76.82782 -166.70784
1003.7747 76.997032 -166.2706
1003.6424 76.674843 -166.38708
1003.6718 76.559982 -166.14729
1003.691 76.483017 -165.9882
1003.5479 76.19677 -166.18564
1003.5676 76.120186 -166.02544
1003.5978 76.005539 -165.78284
1003.4635 75.67569 -165.89795
1003.6409 75.855026 -165.45212
1003.5062 75.52317 -165.56631
1003.5381 75.409256 -165.31836
1003.3933 75.116646 -165.5145
1003.4135 75.040497 -165.35301
1003.4424 74.92572 -165.11479
1003.4713 74.810875 -164.87714
1003.3269 74.519501 -165.07327
1003.3466 74.443054 -164.91324
1003.3759 74.328354 -164.67416
1003.4052 74.213882 -164.4352
1003.4252 74.138359 -164.27463
1003.28 73.843422 -164.46957
1003.31 73.728485 -164.22778
1003.3403 73.613991 -163.98497
1003.1946 73.316849 -164.17935
1003.215 73.240875 -164.01749
1003.2444 73.126389 -163.77798
1003.2723 73.011223 -163.54314
1003.2905 72.934586 -163.38835
1003.1469 72.642479 -163.58105
1003.1647 72.564934 -163.42653
1003.1931 72.44957 -163.1897
1003.2236 72.335464 -162.94698
1003.077 72.033714 -163.13931
1003.0976 71.957954 -162.97667
1003.1276 71.843727 -162.73564
1003.1573 71.729218 -162.49461
1003.0104 71.425087 -162.68546
1003.0317 71.349251 -162.52022
1003.0642 71.235901 -162.27078
1003.0858 71.160172 -162.10464
1002.9377 70.85218 -162.2952
1002.9698 70.738739 -162.04741
1003.0012 70.624565 -161.80107
1002.853 70.314735 -161.99011
1002.8748 70.239838 -161.82391
1002.907 70.126472 -161.57549
1002.9288 70.051208 -161.409
1002.7801 69.739395 -161.59778
1002.8124 69.625702 -161.34851
1002.8443 69.51239 -161.10124
1002.6961 69.201263 -161.28885
1002.7162 69.124504 -161.12689
1002.7468 69.010216 -160.88321
1002.6075 68.657959 -160.99084
1002.7894 68.859322 -160.55382
1002.6508 68.50618 -160.65785
1002.684 68.39357 -160.40649
1002.5345 68.076706 -160.59213
1002.5557 68.000671 -160.42722
1002.5863 67.886642 -160.18393
1002.6157 67.771706 -159.94414
1002.4664 67.456741 -160.13098
1002.4869 67.380699 -159.96851
1002.5181 67.266693 -159.72308
1002.5503 67.15374 -159.47517
1002.3998 66.833405 -159.66074
1002.4312 66.71962 -159.41464
1002.4608 66.604919 -159.17447
1002.3203 66.248901 -159.28188
1002.4987 66.451103 -158.85843
1002.361 66.095917 -158.9572
1002.3942 65.98317 -158.70578
1002.4174 65.909309 -158.53561
1002.2761 65.543739 -158.63513
1002.3082 65.430191 -158.38693
1002.3286 65.353851 -158.22464
1002.1778 65.031487 -158.40871
1002.2075 64.916565 -158.16782
1002.2379 64.802391 -157.925
1002.0963 64.43837 -158.02786
1002.2773 64.648338 -157.60367
1002.137 64.288147 -157.70595
1002.1658 64.173843 -157.46864
1002.1951 64.059937 -157.23041
1002.2153 63.984756 -157.06989
